VERSION 0.7
FIELDS x y z rgb
SIZE 4 4 4 4
TYPE F F F U
COUNT 1 1 1 1
WIDTH 1364
HEIGHT 1
VIEWPOINT 0000000
POINTS 1364
DATA ascii
3.53034 4.42016 -12.7301 16744319
3.67208 4.45753 -12.8062 16744319
4.11651 4.71101 -13.4646 16744319
4.22185 4.69765 -13.3901 16744319
4.36862 4.73022 -13.4453 16744319
4.59137 4.71868 -13.3344 16744319
7.15763 4.71868 -12.1513 16744319
7.49767 4.73408 -11.9989 16744319
6.70449 4.17512 -10.524 16744319
7.23908 4.44728 -11.1473 16744319
6.54549 3.968 -9.88923 16744319
7.07445 4.23302 -10.4884 16744319
7.06261 4.17211 -10.2762 16744319
7.18821 4.19323 -10.2659 16744319
6.9079 3.98026 -9.68459 16744319
6.25579 3.56108 -8.61041 16744319
7.07344 3.97889 -9.55927 16744319
7.05017 3.91973 -9.35596 16744319
7.56083 4.15567 -9.85353 16744319
7.68508 4.17662 -9.83652 16744319
8.33812 4.48164 -10.4825 16744319
8.3936 4.46268 -10.3653 16744319
8.57613 4.51128 -10.4037 16744319
8.04396 4.18718 -9.58648 16744319
8.01733 4.13051 -9.38714 16744319
7.73005 3.94238 -8.89246 16744319
7.84468 3.96123 -8.86686 16744319
7.92989 3.96529 -8.80709 16744319
8.03666 3.98026 -8.77054 16744319
8.58113 4.20998 -9.20219 16744319
8.59558 4.17813 -9.05791 16744319
8.72458 4.20235 -9.03463 16744319
8.74605 4.17512 -8.9001 16744319
7.22614 3.51878 -7.22618 16744319
6.27417 3.08223 -6.38468 16744319
6.16235 3.05454 -6.38134 16744319
6.1826 3.09264 -6.51514 16744319
6.1128 3.08622 -6.55522 16744319
7.59335 3.87009 -8.28674 16744319
7.48666 3.85255 -8.31483 16744319
7.44999 3.87135 -8.42074 16744319
7.35231 3.85879 -8.45792 16744319
7.18273 3.80816 -8.40995 16744319
7.22466 3.87009 -8.61007 16744319
6.96576 3.77076 -8.4502 16744319
6.34861 3.47358 -7.83993 16744319
6.67136 3.69008 -8.38711 16744319
6.60816 3.69581 -8.45812 16744319
6.95531 3.93406 -9.0644 16744319
6.72913 3.85005 -8.92991 16744319
7.05736 4.08532 -9.53754 16744319
7.34981 4.30555 -10.1162 16744319
7.24291 4.29467 -10.1543 16744319
7.18514 4.31335 -10.2615 16744319
7.06714 4.29622 -10.2828 16744319
6.65747 4.09939 -9.87018 16744319
6.86677 4.28385 -10.3746 16744319
6.88251 4.3512 -10.5982 16744319
6.73802 4.31805 -10.5767 16744319
7.03879 4.57362 -11.2645 16744319
6.95091 4.58066 -11.3429 16744319
6.82801 4.56484 -11.3638 16744319
6.60693 4.48231 -11.2164 16744319
6.24986 4.30399 -10.8251 16744319
6.43441 4.49926 -11.3729 16744319
6.69432 4.75452 -12.077 16744319
4.24028 4.85539 -13.4485 16744319
4.12612 4.85936 -13.496 16744319
3.99027 4.83763 -13.471 16744319
3.79996 4.74693 -13.2521 16744319
3.6783 4.73937 -13.2636 16744319
3.64072 4.84353 -13.5874 16744319
2.85313 3.92368 -11.0323 16744319
2.85366 4.06161 -11.4455 16744319
2.92117 4.30867 -12.1676 16744319
2.81487 4.30867 -12.1926 16744319
2.68793 4.27615 -12.1246 16744319
2.75846 4.56835 -12.9776 16744319
2.64307 4.56484 -12.9912 16744319
2.5209 4.54914 -12.969 16744319
2.40029 4.53527 -12.9509 16744319
2.45163 4.86134 -13.904 16744319
0.778958 3.07745 -8.9036 16744319
0.524396 2.30138 -6.66314 16744319
0.368748 1.82019 -5.27338 16744319
0.265832 1.49936 -4.34636 16744319
0.192179 1.26439 -3.66703 16744319
0.144248 1.13868 -3.30385 16744319
0.112557 1.11053 -3.22326 16744319
0.080741 1.06206 -3.08341 16744319
0.05173 1.02062 -2.96365 16744319
0.0261483 1.03177 -2.99637 16744319
-4.89122e-07 1.03374 -3.00221 16744319
-0.0268476 1.05932 -3.07639 16744319
-0.0539375 1.06415 -3.09006 16744319
-0.0810748 1.06644 -3.09612 16744319
-0.108061 1.06615 -3.09446 16744319
-0.132707 1.04757 -3.03949 16744319
-0.156932 1.03248 -2.99445 16744319
-0.183105 1.03275 -2.99375 16744319
-0.212393 1.0484 -3.03738 16744319
-0.239207 1.04979 -3.03942 16744319
-0.261477 1.03302 -2.98871 16744319
-0.291958 1.04886 -3.03211 16744319
-0.308509 1.01626 -2.93528 16744319
-0.331171 1.00731 -2.90666 16744319
-0.356704 1.00782 -2.90513 16744319
-0.380913 1.00485 -2.89334 16744319
-0.405736 1.00383 -2.88698 16744319
-0.432446 1.0074 -2.89358 16744319
-0.458107 1.00834 -2.89239 16744319
-0.488127 1.01835 -2.91695 16744319
-0.50843 1.00817 -2.88346 16744319
-0.540394 1.02105 -2.91572 16744319
-0.558391 1.00765 -2.87269 16744319
-0.582551 1.00612 -2.86334 16744319
-0.608081 1.00706 -2.86081 16744319
-0.633452 1.00774 -2.85733 16744319
-0.685168 1.04877 -2.9678 16744319
-0.699694 1.03203 -2.91445 16744319
-0.748133 1.06482 -3.00061 16744319
-0.840958 1.1565 -3.25176 16744319
-1.20421 2.05103 -5.6654 16744319
-0.716538 1.27272 -3.52191 16744319
-0.584767 1.08526 -3.00838 16744319
-0.542005 1.05322 -2.92441 16744319
-0.505213 1.03027 -2.86522 16744319
-0.488775 1.04869 -2.92082 16744319
-0.451737 1.02259 -2.85217 16744319
-0.441215 1.05705 -2.95225 16744319
-0.406973 1.03552 -2.89578 16744319
-0.380011 1.03097 -2.88648 16744319
-0.363562 1.05641 -2.96099 16744319
-0.329549 1.03088 -2.89243 16744319
-0.312562 1.05889 -2.97384 16744319
-0.278455 1.0288 -2.89188 16744319
-0.253979 1.03193 -2.90301 16744319
-0.227751 1.02793 -2.89386 16744319
-0.206206 1.0468 -2.9489 16744319
-0.178232 1.03385 -2.91408 16744319
-0.158783 1.07436 -3.02977 16744319
-0.132454 1.07531 -3.03371 16744319
-0.106464 1.08026 -3.04872 16744319
-0.0796785 1.07787 -3.0428 16744319
-0.0530335 1.07607 -3.03828 16744319
-0.0260697 1.05788 -2.98725 16744319
-4.87253e-07 1.05907 -2.99074 16744319
0.0260619 1.0576 -2.98648 16744319
0.0537627 1.09088 -3.08011 16744319
0.0806392 1.09088 -3.07952 16744319
0.107606 1.09186 -3.08146 16744319
0.130182 1.05687 -2.98168 16744319
0.156549 1.05925 -2.98716 16744319
0.180371 1.04626 -2.94907 16744319
0.206312 1.04734 -2.95042 16744319
0.241525 1.0901 -3.06889 16744319
0.279561 1.13587 -3.19542 16744319
0.311495 1.15087 -3.23502 16744319
0.359122 1.21663 -3.41685 16744319
0.455671 1.42541 -3.9994 16744319
0.76585 2.22535 -6.23739 16744319
1.46259 3.96802 -11.1096 16744319
3.10663 4.89046 -13.4564 16744319
3.12135 4.73485 -13.0014 16744319
3.19257 4.67319 -12.8048 16744319
3.31053 4.68216 -12.8009 16744319
3.22182 4.40812 -12.0241 16744319
3.52396 4.66961 -12.7071 16744319
3.63332 4.66783 -12.671 16744319
3.75381 4.68036 -12.6727 16744319
3.80442 4.60789 -12.4438 16744319
4.20678 4.954 -13.3423 16744319
4.31604 4.94597 -13.2835 16744319
4.46619 4.98436 -13.3481 16744319
4.56944 4.97015 -13.2707 16744319
4.90042 4.73485 -12.4405 16744319
7.19846 4.68036 -11.0847 16744319
6.9307 4.44668 -10.4712 16744319
6.98617 4.42411 -10.3575 16744319
7.51788 4.70019 -10.9387 16744319
7.12711 4.40018 -10.1786 16744319
7.66924 4.67677 -10.752 16744319
7.79264 4.69477 -10.7257 16744319
7.41518 4.4145 -10.0211 16744319
7.46991 4.39542 -9.91298 16744319
7.22806 4.20458 -9.41985 16744319
7.72527 4.44344 -9.88796 16744319
7.7632 4.4161 -9.75975 16744319
7.39066 4.15872 -9.12677 16744319
7.80801 4.34688 -9.47193 16744319
7.59022 4.18152 -9.04573 16744319
6.91524 3.7706 -8.09676 16744319
6.96197 3.75783 -8.00888 16744319
6.72704 3.59506 -7.60358 16744319
7.5003 3.96931 -8.32998 16744319
7.54082 3.9526 -8.22941 16744319
7.6346 3.96415 -8.18716 16744319
8.11716 4.1758 -8.55376 16744319
8.23376 4.19734 -8.52637 16744319
7.53538 3.80707 -7.66811 16744319
7.2351 3.72412 -7.23514 16744319
6.4649 3.3571 -6.57878 16744319
7.03646 3.68678 -7.28651 16744319
7.27287 3.84555 -7.66406 16744319
7.48428 3.99421 -8.02596 16744319
7.96079 4.28882 -8.68773 16744319
8.20265 4.46178 -9.11003 16744319
8.6475 4.74997 -9.77429 16744319
8.75141 4.85512 -10.0674 16744319
8.84879 4.95912 -10.3607 16744319
8.38549 4.74817 -9.99351 16744319
7.89896 4.51985 -9.58227 16744319
7.84055 4.53461 -9.68234 16744319
6.94465 4.06037 -8.73068 16744319
6.88161 4.0683 -8.80812 16744319
6.80892 4.07095 -8.87361 16744319
6.68767 4.04461 -8.87489 16744319
6.61639 4.04854 -8.94159 16744319
6.56361 4.06433 -9.0341 16744319
6.48874 4.06698 -9.09695 16744319
6.71952 4.26395 -9.59653 16744319
7.00841 4.50357 -10.1974 16744319
6.9092 4.49709 -10.2434 16744319
6.47705 4.27123 -9.78583 16744319
7.15947 4.78451 -11.0247 16744319
6.66026 4.5117 -10.4546 16744319
6.96064 4.78085 -11.1394 16744319
7.28081 5.07178 -11.8813 16744319
7.10194 5.01884 -11.8197 16744319
4.20386 5.08829 -13.333 16744319
3.98675 4.96305 -13.0401 16744319
3.97538 5.09451 -13.4208 16744319
3.72688 5.0759 -13.4388 16744319
3.34592 4.70528 -12.4872 16744319
3.30017 4.79736 -12.7609 16744319
3.04385 4.57946 -12.2083 16744319
2.87919 4.48902 -11.9928 16744319
2.79551 4.52312 -12.1087 16744319
2.69266 4.52804 -12.1459 16744319
2.58002 4.51659 -12.1381 16744319
2.47221 4.51332 -12.1514 16744319
2.37724 4.53461 -12.2299 16744319
2.14883 4.29176 -11.5941 16744319
2.4207 5.07384 -13.7286 16744319
0.746923 3.11922 -8.53744 16744319
0.53727 2.49239 -6.82671 16744319
0.307142 1.60259 -4.39237 16744319
0.24108 1.43731 -3.94165 16744319
0.19055 1.32518 -3.63594 16744319
0.145263 1.21212 -3.32711 16744319
0.114514 1.19428 -3.27929 16744319
0.0837489 1.16447 -3.19828 16744319
0.0543625 1.13374 -3.11447 16744319
0.0259624 1.08287 -2.97507 16744319
-4.95228e-07 1.10635 -3.03969 16744319
-0.026524 1.10625 -3.03931 16744319
-0.0530736 1.10684 -3.04057 16744319
-0.0802946 1.11643 -3.06633 16744319
-0.105653 1.10186 -3.02552 16744319
-0.133833 1.11673 -3.06528 16744319
-0.16019 1.11404 -3.05662 16744319
-0.190059 1.13312 -3.10744 16744319
-0.214256 1.11792 -3.06401 16744319
-0.24475 1.13539 -3.10986 16744319
-0.267172 1.11573 -3.0538 16744319
-0.294494 1.11832 -3.05845 16744319
-0.316528 1.10216 -3.01158 16744319
-0.342585 1.10148 -3.00685 16744319
-0.369267 1.10284 -3.00745 16744319
-0.400658 1.11723 -3.04331 16744319
-0.428771 1.12133 -3.05088 16744319
-0.442556 1.08976 -2.96123 16744319
-0.466916 1.08635 -2.948 16744319
-0.506895 1.11782 -3.0291 16744319
-0.526995 1.10459 -2.98875 16744319
-0.542182 1.08287 -2.92536 16744319
-0.567886 1.08325 -2.92153 16744319
-0.594234 1.08484 -2.92077 16744319
-0.6204 1.08607 -2.91877 16744319
-0.653856 1.09954 -2.94937 16744319
-0.690685 1.11752 -2.9917 16744319
-0.736788 1.14874 -3.06896 16744319
-0.796169 1.19783 -3.19328 16744319
-0.943826 1.37201 -3.64952 16744319
-2.30971 3.24808 -8.62 16744319
-1.71036 3.07571 -8.04665 16744319
-0.875459 1.64179 -4.30304 16744319
-0.605403 1.18627 -3.11454 16744319
-0.564138 1.15742 -3.04383 16744319
-0.532118 1.14571 -3.01781 16744319
-0.512413 1.16077 -3.06207 16744319
-0.479026 1.14489 -3.02447 16744319
-0.452858 1.1455 -3.03016 16744319
-0.426208 1.14499 -3.03264 16744319
-0.40443 1.15846 -3.07196 16744319
-0.373216 1.14499 -3.03961 16744319
-0.346027 1.14285 -3.03705 16744319
-0.323877 1.15846 -3.0815 16744319
-0.296786 1.15773 -3.08225 16744319
-0.270563 1.16067 -3.09256 16744319
-0.246969 1.17689 -3.13805 16744319
-0.210889 1.13033 -3.01587 16744319
-0.189191 1.15867 -3.09325 16744319
-0.162352 1.15983 -3.09787 16744319
-0.135153 1.15846 -3.09552 16744319
-0.109603 1.17419 -3.13862 16744319
-0.082029 1.17161 -3.13256 16744319
-0.0541642 1.16035 -3.10305 16744319
-0.0274441 1.17581 -3.14474 16744319
-5.18073e-07 1.18891 -3.17991 16744319
0.0277515 1.18902 -3.18008 16744319
0.0541927 1.16098 -3.10474 16744319
0.0800284 1.14305 -3.0562 16744319
0.102945 1.10287 -2.94798 16744319
0.131847 1.13013 -3.01982 16744319
0.155652 1.11197 -2.97005 16744319
0.184367 1.12914 -3.0144 16744319
0.210665 1.12914 -3.01267 16744319
0.240167 1.14448 -3.05164 16744319
0.267553 1.14776 -3.05817 16744319
0.289378 1.12884 -3.00533 16744319
0.328393 1.17462 -3.12448 16744319
0.393127 1.29841 -3.45045 16744319
0.999898 3.0676 -8.14357 16744319
2.94755 4.89904 -12.7673 16744319
2.89279 4.63307 -12.0494 16744319
2.96669 4.58495 -11.8988 16744319
3.087 4.60972 -11.9366 16744319
3.01926 4.36156 -11.2681 16744319
3.31394 4.63643 -11.9498 16744319
3.37169 4.57348 -11.7586 16744319
3.54252 4.66345 -11.9594 16744319
3.8295 4.89717 -12.5258 16744319
3.90283 4.85261 -12.3783 16744319
4.06932 4.92354 -12.5242 16744319
4.43248 5.22285 -13.2474 16744319
4.53311 5.20586 -13.1652 16744319
4.6611 5.22072 -13.1626 16744319
4.8742 5.20374 -13.0367 16744319
5.11762 5.22072 -12.9919 16744319
7.88056 5.13692 -11.2547 16744319
8.1252 5.23139 -11.3912 16744319
7.79428 4.95786 -10.728 16744319
7.34166 4.6147 -9.92175 16744319
7.04932 4.37946 -9.35482 16744319
7.06302 4.33791 -9.20477 16744319
8.06399 4.89717 -10.3215 16744319
8.22931 4.94255 -10.3457 16744319
7.39173 4.39148 -9.12809 16744319
7.42779 4.36602 -9.01069 16744319
8.30805 4.83246 -9.90122 16744319
8.54248 4.91786 -10.002 16744319
3.88941 4.70527 -11.6243 16744319
4.04035 5.01896 -12.435 16744319
3.98667 5.08916 -12.6442 16744319
3.82858 5.02666 -12.5228 16744319
3.71061 5.01512 -12.5269 16744319
3.61222 5.03053 -12.5974 16744319
3.51024 5.04214 -12.6576 16744319
3.18625 4.72564 -11.8913 16744319
3.12063 4.78432 -12.0667 16744319
2.98793 4.74103 -11.984 16744319
2.8822 4.73932 -12.0053 16744319
2.76532 4.71883 -11.978 16744319
2.65399 4.70696 -11.9715 16744319
2.56602 4.7376 -12.0723 16744319
2.35578 4.53583 -11.5791 16744319
2.3255 4.67838 -11.9638 16744319
2.38453 5.02281 -12.8658 16744319
1.20249 4.81598 -12.4884 16744319
0.634021 2.79245 -7.24695 16744319
0.430106 2.10431 -5.46506 16744319
0.345993 1.90397 -4.94797 16744319
0.21413 1.34642 -3.50102 16744319
0.163984 1.20276 -3.12903 16744319
0.125888 1.10786 -2.88334 16744319
0.098457 1.08295 -2.81947 16744319
0.0764009 1.12036 -2.91767 16744319
0.0532888 1.17209 -3.05296 16744319
0.025854 1.13729 -2.96265 16744319
-4.82989e-07 1.13798 -2.96456 16744319
-0.0257811 1.13404 -2.95418 16744319
-0.0514351 1.1313 -2.9467 16744319
-0.077583 1.13769 -2.96277 16744319
-0.105124 1.15626 -3.01035 16744319
-0.135184 1.18966 -3.09623 16744319
-0.166368 1.22024 -3.17451 16744319
-0.19139 1.20343 -3.12921 16744319
-0.218329 1.20144 -3.12226 16744319
-0.24595 1.20332 -3.1251 16744319
-0.269572 1.18728 -3.08123 16744319
-0.304651 1.22013 -3.16393 16744319
-0.337627 1.23988 -3.21232 16744319
-0.36154 1.22595 -3.17321 16744319
-0.398313 1.2546 -3.24401 16744319
-0.419811 1.23462 -3.1888 16744319
-0.440972 1.21628 -3.1377 16744319
-0.468859 1.21763 -3.13722 16744319
-0.502288 1.23253 -3.17134 16744319
-0.533406 1.24058 -3.18753 16744319
-0.550105 1.21605 -3.11982 16744319
-0.579353 1.22036 -3.12592 16744319
-0.60627 1.21968 -3.11901 16744319
-0.632523 1.21786 -3.10896 16744319
-0.652111 1.20398 -3.06796 16744319
-0.669323 1.18707 -3.01914 16744319
-0.706269 1.2052 -3.0592 16744319
-0.784085 1.2893 -3.26597 16744319
-0.904522 1.43523 -3.62786 16744319
-1.12011 1.71727 -4.33117 16744319
-1.11282 2.19869 -5.46969 16744319
-0.697548 1.44003 -3.58859 16744319
-0.580745 1.2553 -3.13343 16744319
-0.550029 1.2477 -3.11938 16744319
-0.520556 1.24238 -3.11074 16744319
-0.494951 1.24631 -3.12501 16744319
-0.481873 1.28418 -3.2243 16744319
-0.446822 1.26467 -3.17932 16744319
-0.430396 1.29888 -3.2692 16744319
-0.397002 1.2832 -3.23333 16744319
-0.384535 1.33806 -3.37504 16744319
-0.349483 1.31701 -3.32513 16744319
-0.320233 1.3161 -3.32576 16744319
-0.296056 1.33806 -3.38395 16744319
-0.266701 1.33899 -3.38877 16744319
-0.236551 1.33579 -3.38285 16744319
-0.204594 1.32012 -3.3451 16744319
-0.170506 1.28332 -3.25346 16744319
-0.140069 1.2649 -3.20811 16744319
-0.110431 1.24643 -3.16233 16744319
-0.0817507 1.23017 -3.12193 16744319
-0.0537879 1.21401 -3.08149 16744319
-0.0265868 1.20009 -3.04651 16744319
-4.99716e-07 1.20821 -3.06723 16744319
0.0265407 1.19805 -3.04133 16744319
0.0524234 1.18324 -3.00338 16744319
0.0762138 1.14687 -2.91052 16744319
0.100296 1.13204 -2.87213 16744319
0.127434 1.15081 -2.91874 16744319
0.154613 1.16371 -2.95021 16744319
0.182846 1.1798 -2.98952 16744319
0.205346 1.15958 -2.93661 16744319
0.235635 1.18303 -2.99405 16744319
0.257345 1.1631 -2.94149 16744319
0.278554 1.14481 -2.89292 16744319
0.312494 1.17762 -2.9732 16744319
0.385034 1.33979 -3.37943 16744319
0.59193 1.91326 -4.82092 16744319
2.94488 4.96913 -12.2664 16744319
2.99952 4.88399 -12.0305 16744319
2.88656 4.54127 -11.1616 16744319
2.8579 4.34959 -10.6659 16744319
3.08929 4.55362 -11.1397 16744319
3.20052 4.57383 -11.1616 16744319
3.26879 4.53359 -11.0353 16744319
3.35248 4.51678 -10.9655 16744319
3.74475 4.90545 -11.8769 16744319
4.03439 5.14272 -12.4167 16744319
4.14259 5.14272 -12.381 16744319
3.93478 4.76076 -11.4275 16744319
4.35804 5.14272 -12.3068 16744319
4.46355 5.14075 -12.2636 16744319
4.36089 5.55275 -13.0334 16744319
4.0004 5.23035 -12.3121 16744319
3.90474 5.24638 -12.3843 16744319
3.80966 5.26454 -12.4609 16744319
3.71076 5.27874 -12.5274 16744319
3.81142 5.58673 -13.2921 16744319
3.45691 5.22636 -12.4653 16744319
3.30761 5.16329 -12.3442 16744319
2.89814 4.67658 -11.2063 16744319
2.62875 4.3902 -10.5434 16744319
2.55549 4.42281 -10.6445 16744319
2.35742 4.23408 -10.2112 16744319
2.37547 4.43427 -10.7151 16744319
2.18155 4.23932 -10.2635 16744319
2.0971 4.24985 -10.3076 16744319
2.16281 4.57961 -11.1267 16744319
0.796608 3.69282 -9.10534 16744319
0.485409 2.49962 -6.16775 16744319
0.361819 2.09564 -5.17429 16744319
0.265904 1.75979 -4.34753 16744319
0.182088 1.4057 -3.47447 16744319
0.135799 1.25784 -3.11033 16744319
0.108681 1.25819 -3.11225 16744319
0.0803005 1.2394 -3.06659 16744319
0.0541644 1.25393 -3.10312 16744319
0.0267523 1.23861 -3.06558 16744319
-5.01598e-07 1.2439 -3.07879 16744319
-0.0274689 1.27174 -3.14758 16744319
-0.0556851 1.28911 -3.19018 16744319
-0.0849211 1.3107 -3.243 16744319
-0.113348 1.31221 -3.24587 16744319
-0.143554 1.32966 -3.28792 16744319
-0.168365 1.29975 -3.21261 16744319
-0.203402 1.34613 -3.32561 16744319
-0.239333 1.3862 -3.42263 16744319
-0.269546 1.38803 -3.42492 16744319
-0.30436 1.41091 -3.47886 16744319
-0.333949 1.40772 -3.46821 16744319
-0.358489 1.38564 -3.41081 16744319
-0.413693 1.47648 -3.63095 16744319
-0.431813 1.43156 -3.51685 16744319
-0.463893 1.43591 -3.52363 16744319
-0.498334 1.44669 -3.54585 16744319
-0.516383 1.41149 -3.45521 16744319
-0.554576 1.43231 -3.50147 16744319
-0.558193 1.36642 -3.33564 16744319
-0.586169 1.36383 -3.32434 16744319
-0.617555 1.36915 -3.33205 16744319
-0.634989 1.34455 -3.26675 16744319
-0.645349 1.30782 -3.17201 16744319
-0.665504 1.29325 -3.13097 16744319
-0.712173 1.32941 -3.21242 16744319
-0.773445 1.38915 -3.35017 16744319
-0.997445 1.72629 -4.15468 16744319
-1.31205 2.19122 -5.26239 16744319
-1.85197 2.98842 -7.16106 16744319
-3.56722 5.56855 -13.3131 16744319
-0.88194 1.83235 -4.3349 16744319
-0.634658 1.37773 -3.26505 16744319
-0.56398 1.2819 -3.04298 16744319
-0.539978 1.28804 -3.06238 16744319
-0.513517 1.28875 -3.06867 16744319
-0.499229 1.32188 -3.15203 16744319
-0.477069 1.33691 -3.19216 16744319
-0.476135 1.41709 -3.38789 16744319
-0.447005 1.41853 -3.39536 16744319
-0.416809 1.41666 -3.39465 16744319
-0.392416 1.43586 -3.4442 16744319
-0.368934 1.46197 -3.51019 16744319
-0.327872 1.41695 -3.40509 16744319
-0.302371 1.43704 -3.45613 16744319
-0.268831 1.41925 -3.41583 16744319
-0.238504 1.41623 -3.41078 16744319
-0.215449 1.46182 -3.52258 16744319
-0.178274 1.41095 -3.40168 16744319
-0.149018 1.41508 -3.41309 16744319
-0.114536 1.35939 -3.27988 16744319
-0.0870516 1.37746 -3.32437 16744319
-0.0579242 1.37475 -3.31846 16744319
-0.0286231 1.3586 -3.27984 16744319
-5.3339e-07 1.35609 -3.27392 16744319
0.0273116 1.2964 -3.12968 16744319
0.0556637 1.32113 -3.18902 16744319
0.0812573 1.28579 -3.10313 16744319
0.108224 1.28449 -3.09917 16744319
0.132957 1.26258 -3.04525 16744319
0.161731 1.28002 -3.08604 16744319
0.186572 1.26589 -3.05045 16744319
0.211767 1.25747 -3.02843 16744319
0.243237 1.28414 -3.09064 16744319
0.266697 1.2675 -3.04839 16744319
0.285855 1.23537 -2.96874 16744319
0.346924 1.37475 -3.30079 16744319
0.456575 1.67062 -4.00734 16744319
0.902936 3.06893 -7.35388 16744319
3.21256 5.70021 -13.3814 16744319
2.81817 4.82521 -11.3031 16744319
2.75513 4.55792 -10.6534 16744319
2.70101 4.3227 -10.0804 16744319
2.75651 4.27252 -9.93971 16744319
3.03306 4.55792 -10.5776 16744319
3.27687 4.77905 -11.0626 16744319
3.67049 5.20011 -12.0057 16744319
3.66608 5.04992 -11.6274 16744319
4.01374 5.38011 -12.3531 16744319
4.12456 5.38426 -12.3271 16744319
4.19965 5.34312 -12.1967 16744319
4.29608 5.3309 -12.1318 16744319
4.71826 5.71418 -12.9634 16744319
4.79594 5.67247 -12.8274 16744319
4.82009 5.46175 -11.9302 16744319
4.63775 5.49326 -12.0818 16744319
4.35242 5.82245 -13.0081 16744319
4.0037 5.4996 -12.3222 16744319
3.8781 5.47431 -12.2998 16744319
4.01369 5.82721 -13.1283 16744319
3.88313 5.80353 -13.1093 16744319
3.8057 5.86068 -13.2721 16744319
3.67316 5.83435 -13.2451 16744319
3.37935 5.54228 -12.612 16744319
2.75494 4.67051 -10.6526 16744319
2.54455 4.46465 -10.2057 16744319
2.44014 4.43691 -10.164 16744319
2.23274 4.2131 -9.67112 16744319
2.25887 4.43003 -10.1892 16744319
2.17189 4.43416 -10.218 16744319
2.17164 4.62364 -10.674 16744319
2.60985 5.80589 -13.4266 16744319
0.949968 4.62664 -10.8583 16744319
0.621012 3.35977 -7.89077 16744319
0.441018 2.68364 -6.3069 16744319
0.298865 2.07803 -4.88643 16744319
0.192938 1.56484 -3.6815 16744319
0.142449 1.38622 -3.26265 16744319
0.109172 1.32784 -3.12632 16744319
0.0818482 1.32723 -3.1257 16744319
0.0546908 1.33019 -3.13328 16744319
0.0273768 1.33168 -3.13714 16744319
-5.25733e-07 1.36974 -3.22692 16744319
-0.0284577 1.38421 -3.26089 16744319
-0.0578434 1.40684 -3.31383 16744319
-0.0865802 1.40394 -3.30636 16744319
-0.115612 1.40615 -3.31069 16744319
-0.14662 1.4268 -3.35816 16744319
-0.178741 1.44968 -3.41058 16744319
-0.21172 1.4721 -3.4616 16744319
-0.252648 1.53738 -3.61305 16744319
-0.284842 1.54103 -3.61927 16744319
-0.316517 1.54153 -3.61782 16744319
-0.353533 1.5657 -3.67159 16744319
-0.390742 1.58674 -3.71768 16744319
-0.41587 1.55937 -3.65006 16744319
-0.451055 1.57104 -3.67356 16744319
-0.488958 1.5901 -3.71402 16744319
-0.488908 1.49115 -3.47878 16744319
-0.528292 1.51713 -3.5349 16744319
-0.577207 1.56621 -3.64436 16744319
-0.5981 1.53821 -3.57412 16744319
-0.620842 1.51762 -3.52099 16744319
-0.641322 1.49381 -3.46028 16744319
-0.661803 1.47225 -3.4047 16744319
-0.66874 1.42381 -3.28698 16744319
-0.688476 1.4056 -3.23904 16744319
-0.687941 1.34917 -3.10312 16744319
-0.725688 1.36935 -3.14332 16744319
-0.762966 1.3873 -3.178 16744319
-0.7909 1.38771 -3.17214 16744319
-0.865564 1.46741 -3.34691 16744319
-1.27041 2.65684 -5.97682 16744319
-0.782832 1.70732 -3.84776 16744319
-0.65797 1.49937 -3.38498 16744319
-0.607471 1.44942 -3.27764 16744319
-0.596585 1.49384 -3.38342 16744319
-0.577393 1.52112 -3.45038 16744319
-0.548176 1.52366 -3.46106 16744319
-0.555775 1.63493 -3.7188 16744319
-0.546345 1.70692 -3.88746 16744319
-0.512941 1.70872 -3.89619 16744319
-0.477913 1.70512 -3.8923 16744319
-0.436172 1.67533 -3.82825 16744319
-0.40349 1.67842 -3.83897 16744319
-0.383259 1.73868 -3.98031 16744319
-0.361669 1.80433 -4.13391 16744319
-0.312023 1.72919 -3.96464 16744319
-0.284156 1.77122 -4.06363 16744319
-0.243912 1.73723 -3.98793 16744319
-0.200361 1.66461 -3.82313 16744319
-0.162916 1.624 -3.7314 16744319
-0.1262 1.57232 -3.6139 16744319
-0.0947198 1.57333 -3.6172 16744319
-0.0628252 1.56522 -3.59924 16744319
-0.030361 1.51275 -3.47898 16744319
-5.62441e-07 1.50107 -3.45224 16744319
0.02961 1.47539 -3.39305 16744319
0.0584901 1.45724 -3.35094 16744319
0.0864676 1.43628 -3.3021 16744319
0.115303 1.43656 -3.30187 16744319
0.143589 1.43134 -3.28875 16744319
0.172842 1.436 -3.29806 16744319
0.193733 1.37985 -3.16754 16744319
0.22488 1.40175 -3.21596 16744319
0.258963 1.43515 -3.29046 16744319
0.287639 1.43501 -3.28775 16744319
0.320643 1.45463 -3.33003 16744319
0.377047 1.56842 -3.58739 16744319
0.480037 1.84382 -4.21326 16744319
0.866795 3.0926 -7.05953 16744319
3.65642 5.94921 -13.1847 16744319
2.99894 4.73077 -10.4586 16744319
2.81009 4.30209 -9.48676 16744319
2.7709 4.12086 -9.06328 16744319
3.11498 4.50417 -9.87951 16744319
3.47607 4.89111 -10.6983 16744319
3.83712 5.25813 -11.468 16744319
3.9328 5.25244 -11.4218 16744319
4.53944 5.91301 -12.8191 16744319
4.39778 5.59093 -12.0829 16744319
4.77992 5.93467 -12.7846 16744319
5.16682 5.74972 -12.1724 16744319
4.35112 4.74463 -10.0069 16744319
5.23193 5.59307 -11.7512 16744319
5.3797 5.64069 -11.8047 16744319
4.83672 4.97628 -10.3725 16744319
4.77131 6.06591 -12.7615 16744319
4.38429 5.7073 -12.0458 16744319
4.09577 5.74701 -12.241 16744319
3.71187 5.34802 -11.424 16744319
3.25176 4.8146 -10.3133 16744319
3.18121 4.8444 -10.4053 16744319
3.08928 4.84283 -10.4293 16744319
2.86918 4.6345 -10.0061 16744319
2.40795 4.01172 -8.68283 16744319
2.24486 3.86167 -8.37797 16744319
2.44471 4.34721 -9.45305 16744319
2.91432 5.36346 -11.6888 16744319
2.9663 5.65735 -12.3556 16744319
2.95124 6.07086 -13.3123 16744319
0.732353 3.74117 -8.3709 16744319
0.521904 2.96163 -6.63147 16744319
0.356388 2.27469 -5.09662 16744319
0.271664 1.98126 -4.4417 16744319
0.209297 1.78052 -3.99366 16744319
0.147485 1.5054 -3.37799 16744319
0.114804 1.46462 -3.2876 16744319
0.0861872 1.46592 -3.29139 16744319
0.0565801 1.44343 -3.24152 16744319
0.0286525 1.46188 -3.28333 16744319
-5.43494e-07 1.48525 -3.33594 16744319
-0.0287157 1.46505 -3.29045 16744319
-0.0581391 1.48317 -3.33077 16744319
-0.0875961 1.48986 -3.34516 16744319
-0.117811 1.50296 -3.37368 16744319
-0.147725 1.50784 -3.38347 16744319
-0.17954 1.52736 -3.42583 16744319
-0.209514 1.52799 -3.42554 16744319
-0.242717 1.54916 -3.47103 16744319
-0.287182 1.62965 -3.649 16744319
-0.324094 1.6556 -3.70442 16744319
-0.368514 1.71184 -3.82718 16744319
-0.424117 1.80648 -4.03522 16744319
-0.475911 1.87175 -4.17703 16744319
-0.512795 1.8734 -4.1764 16744319
-0.559658 1.90901 -4.25105 16744319
-0.58627 1.87553 -4.17155 16744319
-0.618593 1.86331 -4.13912 16744319
-0.646345 1.83956 -4.08088 16744319
-0.696761 1.87956 -4.1637 16744319
-0.733904 1.8817 -4.1622 16744319
-0.725393 1.77224 -3.91389 16744319
-0.734734 1.71441 -3.7799 16744319
-0.753187 1.68202 -3.70205 16744319
-0.71361 1.52815 -3.35729 16744319
-0.731379 1.50449 -3.29905 16744319
-0.750945 1.48629 -3.25272 16744319
-0.769151 1.46693 -3.20376 16744319
-0.82779 1.52345 -3.3201 16744319
-0.961238 1.70928 -3.71685 16744319
-1.42149 2.44529 -5.30511 16744319
-1.13985 2.49847 -5.36262 16744319
-0.739523 1.69044 -3.63489 16744319
-0.606925 1.44957 -3.12237 16744319
-0.588604 1.47195 -3.17584 16744319
-0.604861 1.58741 -3.43035 16744319
-0.579332 1.59964 -3.46197 16744319
-0.588738 1.71511 -3.71716 16744319
-0.574612 1.77164 -3.84484 16744319
-0.55227 1.80842 -3.92962 16744319
-0.526308 1.83758 -3.99773 16744319
-0.492178 1.84048 -4.00848 16744319
-0.449109 1.80799 -3.94179 16744319
-0.421685 1.83847 -4.01208 16744319
-0.386329 1.83691 -4.0122 16744319
-0.35297 1.84563 -4.03448 16744319
-0.31775 1.84563 -4.03741 16744319
-0.271593 1.77434 -3.88397 16744319
-0.242024 1.8067 -3.95706 16744319
-0.200759 1.74815 -3.83072 16744319
-0.161511 1.68743 -3.69922 16744319
-0.125399 1.63748 -3.59096 16744319
-0.0923615 1.60795 -3.52714 16744319
-0.0606837 1.58459 -3.47655 16744319
-0.0295253 1.54187 -3.38323 16744319
-5.39046e-07 1.50782 -3.30864 16744319
0.0289616 1.51249 -3.31875 16744319
0.0579157 1.51234 -3.31804 16744319
0.0894566 1.5574 -3.41625 16744319
0.119486 1.56028 -3.42167 16744319
0.151477 1.5826 -3.46942 16744319
0.18169 1.58211 -3.46688 16744319
0.215011 1.60506 -3.51543 16744319
0.239049 1.56173 -3.41858 16744319
0.261647 1.51977 -3.32457 16744319
0.284991 1.49018 -3.25749 16744319
0.314427 1.49503 -3.26547 16744319
0.347921 1.51688 -3.31027 16744319
0.387737 1.56093 -3.40315 16744319
0.618111 2.31141 -5.03414 16744319
1.28372 4.48205 -9.75089 16744319
2.85269 4.44655 -9.3308 16744319
2.61628 3.96502 -8.29782 16744319
2.18365 3.22036 -6.72063 16744319
2.16717 3.11257 -6.47702 16744319
2.45444 3.43569 -7.12825 16744319
2.52398 3.44584 -7.12756 16744319
2.84405 3.78957 -7.81402 16744319
3.27574 4.26273 -8.76143 16744319
4.61123 5.86397 -12.0128 16744319
4.41207 5.48619 -11.2008 16744319
4.55748 5.54438 -11.2802 16744319
4.56885 5.4409 -11.0302 16744319
4.83305 5.5409 -10.8553 16744319
5.071 5.93015 -11.6626 16744319
4.48986 6.27205 -12.679 16744319
3.88809 5.56886 -11.2919 16744319
2.83642 4.16837 -8.47721 16744319
1.97896 2.98626 -6.09066 16744319
1.82217 2.82566 -5.77924 16744319
1.72436 2.7502 -5.64016 16744319
1.50158 2.46535 -5.06928 16744319
1.42968 2.41864 -4.98591 16744319
1.48442 2.59019 -5.35269 16744319
2.53077 4.55962 -9.44501 16744319
2.5929 4.82901 -10.026 16744319
3.0825 5.94155 -12.3633 16744319
3.1109 6.21402 -12.9579 16744319
0.557072 2.98049 -6.36741 16744319
0.406887 2.41827 -5.17003 16744319
0.299649 2.00309 -4.28521 16744319
0.240764 1.83903 -3.93648 16744319
0.180602 1.60915 -3.44613 16744319
0.144358 1.54324 -3.30636 16744319
0.11385 1.52121 -3.26027 16744319
0.0865887 1.54247 -3.30673 16744319
0.0594691 1.58896 -3.40703 16744319
0.0302361 1.61571 -3.4648 16744319
-5.6339e-07 1.61251 -3.45806 16744319
-0.0301899 1.61318 -3.45937 16744319
-0.0595314 1.59059 -3.41054 16744319
-0.0895124 1.59453 -3.41834 16744319
-0.115431 1.54232 -3.30551 16744319
-0.142143 1.51956 -3.25562 16744319
-0.175895 1.56719 -3.35628 16744319
-0.211551 1.61588 -3.45883 16744319
-0.252778 1.68977 -3.61491 16744319
-0.284719 1.69217 -3.61771 16744319
-0.310764 1.66267 -3.55206 16744319
-0.347966 1.69291 -3.61378 16744319
-0.378493 1.68847 -3.60113 16744319
-0.423656 1.74513 -3.7184 16744319
-0.45764 1.75106 -3.72719 16744319
-0.491429 1.75564 -3.73279 16744319
-0.504767 1.69125 -3.59162 16744319
-0.536913 1.69384 -3.59258 16744319
-0.567434 1.69143 -3.58265 16744319
-0.598021 1.68958 -3.57365 16744319
-0.636916 1.71035 -3.61215 16744319
-0.683395 1.74868 -3.68729 16744319
-0.754222 1.8432 -3.88016 16744319
-0.794882 1.85917 -3.90699 16744319
-0.793241 1.77909 -3.73193 16744319
-0.797135 1.71738 -3.59566 16744319
-0.754882 1.56481 -3.26977 16744319
-0.730549 1.45927 -3.04297 16744319
-0.80112 1.54417 -3.21313 16744319
-0.867636 1.61588 -3.35492 16744319
-1.28502 2.948 -6.04558 16744319
-0.768765 1.83922 -3.77862 16744319
-0.628888 1.57206 -3.23536 16744319
-0.640357 1.67604 -3.45508 16744319
-0.670451 1.84159 -3.80234 16744319
-0.640468 1.8509 -3.8273 16744319
-0.593502 1.80961 -3.74724 16744319
-0.533771 1.72246 -3.57156 16744319
-0.495372 1.69774 -3.52477 16744319
-0.437101 1.59727 -3.32013 16744319
-0.396325 1.55114 -3.22782 16744319
-0.356783 1.50328 -3.13145 16744319
-0.335435 1.53062 -3.19146 16744319
-0.315174 1.56846 -3.27322 16744319
-0.291716 1.59646 -3.33434 16744319
-0.26189 1.5921 -3.32765 16744319
-0.23303 1.59339 -3.3325 16744319
-0.204189 1.59533 -3.33846 16744319
-0.172305 1.57034 -3.28779 16744319
-0.143708 1.57143 -3.29147 16744319
-0.116788 1.59614 -3.34436 16744319
-0.0876875 1.59776 -3.34865 16744319
-0.058267 1.59243 -3.3381 16744319
-0.0295596 1.61564 -3.38716 16744319
-5.53906e-07 1.62164 -3.39985 16744319
0.0300209 1.64091 -3.44014 16744319
0.0651782 1.78134 -3.73411 16744319
0.0978944 1.78376 -3.73848 16744319
0.126181 1.72453 -3.61338 16744319
0.153094 1.67408 -3.50646 16744319
0.180292 1.64314 -3.44022 16744319
0.20425 1.59582 -3.33948 16744319
0.22968 1.57049 -3.28461 16744319
0.247279 1.50328 -3.142 16744319
0.27137 1.48512 -3.10179 16744319
0.290717 1.44675 -3.01924 16744319
0.321457 1.46685 -3.05848 16744319
0.389772 1.64228 -3.42101 16744319
0.505305 1.97768 -4.1154 16744319
0.78511 2.86899 -5.96354 16744319
3.50001 5.70992 -11.4481 16744319
3.37563 5.35438 -10.7062 16744319
2.86784 4.42658 -8.82635 16744319
4.05188 5.39291 -10.5556 16744319
4.37789 5.69751 -11.114 16744319
4.26716 6.5591 -12.7533 16744319
2.75808 5.19748 -10.2934 16744319
3.15775 6.15119 -12.2102 16744319
0.569371 3.18626 -6.50799 16744319
0.422982 2.62942 -5.37453 16744319
0.30532 2.13478 -4.36632 16744319
0.242962 1.94109 -3.97242 16744319
0.174666 1.62776 -3.33285 16744319
0.137501 1.53748 -3.14933 16744319
0.107035 1.49586 -3.06512 16744319
0.0810399 1.50996 -3.09483 16744319
0.0572678 1.60044 -3.28092 16744319
0.0294102 1.64379 -3.37016 16744319
-5.59654e-07 1.67541 -3.43513 16744319
-0.0313404 1.7516 -3.5912 16744319
-0.0629047 1.75794 -3.60379 16744319
-0.0990564 1.84562 -3.78281 16744319
-0.130233 1.82004 -3.72939 16744319
-0.16506 1.84562 -3.7805 16744319
-0.184013 1.71486 -3.51119 16744319
-0.210347 1.68051 -3.43915 16744319
-0.228511 1.59773 -3.26788 16744319
-0.254206 1.58024 -3.23001 16744319
-0.285623 1.59837 -3.26469 16744319
-0.314635 1.60108 -3.26762 16744319
-0.342487 1.59805 -3.25856 16744319
-0.378151 1.62925 -3.319 16744319
-0.406191 1.62561 -3.30818 16744319
-0.421697 1.57573 -3.20312 16744319
-0.442882 1.55208 -3.15128 16744319
-0.464827 1.5338 -3.11024 16744319
-0.491339 1.5319 -3.10221 16744319
-0.53265 1.57403 -3.18301 16744319
-0.605941 1.70193 -3.43648 16744319
-0.656692 1.75756 -3.54321 16744319
-0.699011 1.78676 -3.59612 16744319
-0.753038 1.84222 -3.70132 16744319
-0.784047 1.83926 -3.68867 16744319
-0.819498 1.84668 -3.69654 16744319
-0.795609 1.72501 -3.44618 16744319
-0.789935 1.65039 -3.29033 16744319
-0.806081 1.62512 -3.23303 16744319
-0.932212 1.81592 -3.60462 16744319
-1.10987 2.66152 -5.22156 16744319
-0.74989 1.87533 -3.68585 16744319
-0.632018 1.65145 -3.25147 16744319
-0.621168 1.69946 -3.35154 16744319
-0.603147 1.73176 -3.42063 16744319
-0.582741 1.76036 -3.48234 16744319
-0.543704 1.73287 -3.43283 16744319
-0.504296 1.70106 -3.37434 16744319
-0.46901 1.6802 -3.33719 16744319
-0.427067 1.6313 -3.24391 16744319
-0.381496 1.56074 -3.10705 16744319
-0.343902 1.51465 -3.01841 16744319
-0.318348 1.51846 -3.02889 16744319
-0.300435 1.56283 -3.12015 16744319
-0.272934 1.56134 -3.11966 16744319
-0.251626 1.59899 -3.19722 16744319
-0.224663 1.60576 -3.21284 16744319
-0.197239 1.61084 -3.22484 16744319
-0.168259 1.60292 -3.21058 16744319
-0.140525 1.60624 -3.21857 16744319
-0.113823 1.6261 -3.25948 16744319
-0.0856142 1.63065 -3.26947 16744319
-0.0577497 1.64978 -3.30847 16744319
-0.0289729 1.65531 -3.31993 16744319
-5.6625e-07 1.73287 -3.47562 16744319
0.0307973 1.7596 -3.5291 16744319
0.0717757 2.05051 -4.11209 16744319
0.109909 2.09341 -4.19732 16744319
0.144475 2.064 -4.13726 16744319
0.169908 1.9421 -3.89157 16744319
0.190585 1.81562 -3.63661 16744319
0.215314 1.75846 -3.52038 16744319
0.235174 1.6809 -3.36317 16744319
0.241696 1.5359 -3.07106 16744319
0.265437 1.51846 -3.03398 16744319
0.283586 1.47519 -2.94518 16744319
0.318406 1.51874 -3.02945 16744319
0.392614 1.72919 -3.44595 16744319
0.533614 2.18308 -4.34597 16744319
0.867322 3.31298 -6.58801 16744319
3.85968 6.58191 -12.6245 16744319
3.5182 5.83331 -11.1584 16744319
3.33988 6.36792 -12.0433 16744319
0.704884 4.12086 -8.05692 16744319
0.441333 2.86609 -5.60771 16744319
0.337575 2.46577 -4.82759 16744319
0.2206 1.84118 -3.60681 16744319
0.175451 1.70814 -3.34784 16744319
0.137951 1.61144 -3.15963 16744319
0.10729 1.56641 -3.07241 16744319
0.082643 1.60863 -3.15604 16744319
0.0592822 1.73077 -3.39632 16744319
0.0311528 1.81898 -3.56984 16744319
-6.10183e-07 1.9083 -3.74528 16744319
-0.0332964 1.94407 -3.81534 16744319
-0.0678211 1.98003 -3.88545 16744319
-0.101688 1.97932 -3.88332 16744319
-0.13525 1.97461 -3.87305 16744319
-0.16678 1.94818 -3.8199 16744319
-0.193103 1.87998 -3.68464 16744319
-0.208044 1.73638 -3.4015 16744319
-0.216473 1.58119 -3.09572 16744319
-0.245326 1.59318 -3.11718 16744319
-0.271373 1.58648 -3.10181 16744319
-0.298288 1.58572 -3.09785 16744319
-0.32503 1.58436 -3.09247 16744319
-0.352846 1.58815 -3.0969 16744319
-0.379967 1.58861 -3.0946 16744319
-0.400365 1.56287 -3.04109 16744319
-0.421176 1.54196 -2.99684 16744319
-0.442582 1.52566 -2.9614 16744319
-0.474781 1.54641 -2.99766 16744319
-0.512968 1.5836 -3.06539 16744319
-0.548227 1.60863 -3.10916 16744319
-0.576791 1.61269 -3.1121 16744319
-0.600891 1.60458 -3.09133 16744319
-0.629427 1.60863 -3.09375 16744319
-0.657995 1.61253 -3.09564 16744319
-0.68505 1.61269 -3.09008 16744319
-0.709576 1.60722 -3.07353 16744319
-0.73866 1.61222 -3.07675 16744319
-0.78791 1.65946 -3.16015 16744319
-0.956212 1.9459 -3.69742 16744319
-2.08445 5.21902 -9.80664 16744319
-0.814934 2.12786 -4.00555 16744319
-0.667013 1.81975 -3.4315 16744319
-0.520349 1.48641 -2.80757 16744319
-0.483025 1.44802 -2.73939 16744319
-0.44732 1.41086 -2.67309 16744319
-0.430599 1.4329 -2.71871 16744319
-0.422832 1.48916 -2.82925 16744319
-0.4039 1.51075 -2.87391 16744319
-0.384309 1.53271 -2.91913 16744319
-0.372908 1.59288 -3.03711 16744319
-0.356449 1.63913 -3.12853 16744319
-0.333868 1.66271 -3.17656 16744319
-0.301941 1.63993 -3.13579 16744319
-0.261651 1.56279 -2.99069 16744319
-0.23666 1.57021 -3.00706 16744319
-0.210547 1.57123 -3.01097 16744319
-0.183973 1.56875 -3.00794 16744319
-0.160219 1.59363 -3.05716 16744319
-0.133509 1.59333 -3.05787 16744319
-0.106769 1.59258 -3.05747 16744319
-0.0798656 1.58823 -3.04994 16744319
-0.0534031 1.59288 -3.05945 16744319
-0.0270966 1.61637 -3.10492 16744319
-5.05682e-07 1.61575 -3.10385 16744319
0.0282058 1.6826 -3.23214 16744319
0.0573999 1.71213 -3.28849 16744319
0.0861122 1.71248 -3.28853 16744319
0.113448 1.69222 -3.24876 16744319
0.145096 1.73163 -3.32328 16744319
0.172236 1.71317 -3.28648 16744319
0.200949 1.71352 -3.28552 16744319
0.225582 1.68344 -3.226 16744319
0.254207 1.68664 -3.23003 16744319
0.281961 1.68411 -3.22286 16744319
0.310726 1.68765 -3.22704 16744319
0.352259 1.7543 -3.35155 16744319
0.407273 1.87286 -3.57462 16744319
0.518207 2.21353 -4.22049 16744319
0.960297 3.82987 -7.29423 16744319
3.56304 6.00226 -10.966 16744319
3.21403 6.6028 -11.995 16744319
0.683238 4.16822 -7.80951 16744319
0.427016 2.89385 -5.42579 16744319
0.320839 2.44556 -4.58826 16744319
0.257453 2.24232 -4.20935 16744319
0.190858 1.93904 -3.64182 16744319
0.151913 1.85178 -3.4794 16744319
0.119342 1.81823 -3.41753 16744319
0.0868545 1.76421 -3.31688 16744319
0.0539466 1.64356 -3.09065 16744319
0.027031 1.64703 -3.09752 16744319
-4.96006e-07 1.61876 -3.04446 16744319
-0.026478 1.61328 -3.03404 16744319
-0.0524262 1.59721 -3.00348 16744319
-0.0770562 1.56516 -2.94266 16744319
-0.104729 1.59558 -2.99904 16744319
-0.130957 1.59632 -2.99941 16744319
-0.155206 1.57681 -2.96151 16744319
-0.178614 1.55566 -2.92033 16744319
-0.206374 1.57305 -2.9513 16744319
-0.235598 1.59662 -2.99357 16744319
-0.257897 1.57334 -2.94779 16744319
-0.28421 1.57667 -2.95165 16744319
-0.308596 1.56974 -2.93611 16744319
-0.335618 1.57638 -2.9457 16744319
-0.361278 1.57623 -2.94239 16744319
-0.397006 1.61723 -3.01557 16744319
-0.430569 1.64498 -3.06367 16744319
-0.457069 1.64419 -3.05833 16744319
-0.483323 1.64278 -3.0516 16744319
-0.488113 1.57248 -2.91686 16744319
-0.486489 1.48962 -2.75903 16744319
-0.492588 1.43722 -2.65778 16744319
-0.50345 1.40291 -2.59004 16744319
-0.519241 1.3848 -2.55216 16744319
-0.547144 1.39925 -2.57412 16744319
-0.591934 1.45415 -2.67005 16744319
-0.732383 1.73111 -3.17232 16744319
-0.885759 2.01745 -3.68947 16744319
-1.13767 2.50044 -4.56298 16744319
-2.76365 5.86889 -10.6863 16744319
-2.40941 6.29208 -11.3354 16744319
-1.45125 3.95231 -7.13317 16744319
-0.940671 2.67672 -4.83936 16744319
-0.652038 1.94269 -3.5181 16744319
-0.465543 1.45564 -2.64024 16744319
-0.433229 1.42519 -2.58889 16744319
-0.400923 1.39153 -2.53134 16744319
-0.378879 1.39175 -2.53515 16744319
-0.368534 1.43776 -2.62227 16744319
-0.347038 1.44359 -2.63603 16744319
-0.331766 1.47809 -2.70203 16744319
-0.31126 1.49289 -2.73191 16744319
-0.288099 1.49648 -2.74109 16744319
-0.26419 1.4966 -2.74373 16744319
-0.234208 1.45905 -2.67702 16744319
-0.210609 1.45746 -2.67605 16744319
-0.187436 1.45892 -2.68048 16744319
-0.166052 1.47684 -2.71494 16744319
-0.143926 1.49315 -2.74628 16744319
-0.118595 1.47621 -2.71627 16744319
-0.0937521 1.45856 -2.68471 16744319
-0.0695181 1.44192 -2.65479 16744319
-0.045695 1.42159 -2.61785 16744319
-0.0228952 1.42449 -2.6235 16744319
-4.22368e-07 1.40759 -2.59247 16744319
0.0226173 1.40725 -2.59175 16744319
0.0446532 1.3892 -2.55822 16744319
0.0671255 1.39231 -2.56345 16744319
0.090373 1.406 -2.58797 16744319
0.11428 1.42251 -2.61747 16744319
0.138541 1.43728 -2.64354 16744319
0.166178 1.47796 -2.71701 16744319
0.191964 1.49417 -2.74523 16744319
0.244078 1.68908 -3.10133 16744319
0.288274 1.79587 -3.29501 16744319
0.326948 1.85212 -3.39551 16744319
0.368259 1.91286 -3.50377 16744319
0.410944 1.97101 -3.60684 16744319
0.475331 2.11771 -3.87129 16744319
0.707189 2.94173 -5.37167 16744319
0.870507 5.03445 -9.04063 16744319
0.592086 3.76566 -6.76763 16744319
0.393647 2.7811 -5.0018 16744319
0.305033 2.4239 -4.36221 16744319
0.237174 2.1535 -3.87779 16744319
0.180181 1.90837 -3.43809 16744319
0.150318 1.91022 -3.44287 16744319
0.118404 1.88062 -3.39069 16744319
0.086115 1.82353 -3.28864 16744319
0.0471356 1.49709 -2.70043 16744319
0.0227999 1.44827 -2.61268 16744319
-4.15621e-07 1.41407 -2.55106 16744319
-0.0220424 1.4001 -2.52577 16744319
-0.0410441 1.3036 -2.35141 16744319
-0.0617848 1.30831 -2.35946 16744319
-0.0825673 1.31141 -2.36442 16744319
-0.10196 1.29568 -2.33527 16744319
-0.127519 1.35059 -2.43321 16744319
-0.152335 1.38316 -2.49066 16744319
-0.179615 1.42728 -2.56862 16744319
-0.202072 1.42762 -2.56758 16744319
-0.224344 1.42682 -2.56427 16744319
-0.24727 1.43004 -2.56801 16744319
-0.269953 1.43154 -2.56844 16744319
-0.288419 1.41226 -2.53143 16744319
-0.311666 1.41757 -2.53833 16744319
-0.337531 1.4334 -2.56381 16744319
-0.354726 1.41283 -2.52402 16744319
-0.385624 1.44615 -2.58028 16744319
-0.409529 1.45112 -2.58568 16744319
-0.431301 1.44851 -2.57736 16744319
-0.458044 1.46214 -2.59771 16744319
-0.486353 1.47935 -2.62414 16744319
-0.529938 1.53949 -2.72631 16744319
-0.57838 1.60809 -2.84284 16744319
-0.653964 1.74352 -3.07667 16744319
-0.702205 1.79837 -3.16746 16744319
-0.74049 1.82466 -3.20743 16744319
-0.778552 1.84864 -3.24292 16744319
-0.847397 1.94161 -3.39874 16744319
-1.02781 2.27544 -3.97428 16744319
-1.73869 3.72372 -6.48892 16744319
-1.55198 4.22326 -7.30152 16744319
-0.969979 2.75263 -4.76762 16744319
-0.724649 2.14867 -3.72802 16744319
-0.625621 1.94231 -3.37557 16744319
-0.559096 1.82162 -3.17081 16744319
-0.525607 1.80174 -3.14092 16744319
-0.476842 1.72458 -3.01067 16744319
-0.43727 1.67374 -2.92585 16744319
-0.388833 1.5807 -2.7667 16744319
-0.35632 1.54448 -2.70653 16744319
-0.32821 1.52369 -2.67306 16744319
-0.298751 1.49311 -2.62211 16744319
-0.271644 1.4703 -2.58453 16744319
-0.249161 1.47078 -2.58764 16744319
-0.227034 1.47379 -2.59502 16744319
-0.20348 1.4673 -2.58547 16744319
-0.181354 1.4709 -2.59349 16744319
-0.158598 1.46982 -2.59307 16744319
-0.136108 1.47138 -2.59711 16744319
-0.11193 1.4518 -2.56362 16744319
-0.0907176 1.47066 -2.59782 16744319
-0.0673728 1.45614 -2.57286 16744319
-0.044795 1.45215 -2.56629 16744319
-0.0224076 1.45274 -2.56762 16744319
-4.1218e-07 1.43136 -2.52994 16744319
0.0221599 1.43673 -2.53934 16744319
0.0422641 1.37013 -2.42134 16744319
0.0627286 1.35578 -2.39554 16744319
0.0846446 1.37222 -2.42393 16744319
0.107018 1.38809 -2.45113 16744319
0.137275 1.484 -2.61938 16744319
0.16624 1.54065 -2.71803 16744319
0.206401 1.67405 -2.95169 16744319
0.244858 1.76569 -3.11124 16744319
0.284794 1.84875 -3.25524 16744319
0.313351 1.8497 -3.2543 16744319
0.342512 1.85389 -3.25881 16744319
0.400026 1.99927 -3.51101 16744319
0.487752 2.26436 -3.97245 16744319
0.759846 3.29359 -5.77164 16744319
1.60715 6.53344 -11.4355 16744319
6.8281 7.33706 -10.718 16744319
6.41252 6.98646 -10.2622 16744319
5.97767 6.6052 -9.75475 16744319
5.80835 6.51107 -9.66679 16744319
5.84454 6.64845 -9.92213 16744319
5.66094 6.53668 -9.80511 16744319
5.70368 6.68737 -10.0813 16744319
1.09732 6.60997 -11.3962 16744319
0.662262 4.38706 -7.56974 16744319
0.352094 2.59093 -4.47381 16744319
0.273357 2.26249 -3.90922 16744319
0.22259 2.10509 -3.63934 16744319
0.177246 1.95532 -3.38209 16744319
0.136577 1.80775 -3.12816 16744319
0.110697 1.8313 -3.16999 16744319
0.0828725 1.82782 -3.16481 16744319
0.0520601 1.72223 -2.98256 16744319
0.025711 1.70107 -2.94626 16744319
-4.74068e-07 1.67997 -2.90981 16744319
-0.0250566 1.65772 -2.87116 16744319
-0.0499477 1.65232 -2.86149 16744319
-0.0750931 1.65622 -2.86769 16744319
-0.100179 1.65727 -2.86874 16744319
-0.123495 1.63459 -2.82852 16744319
-0.151729 1.67381 -2.89517 16744319
-0.177851 1.68198 -2.90785 16744319
-0.194777 1.6121 -2.78545 16744319
-0.218768 1.60982 -2.77972 16744319
-0.243532 1.61324 -2.78359 16744319
-0.263122 1.58497 -2.73264 16744319
-0.295018 1.62949 -2.80692 16744319
-0.319159 1.62775 -2.80124 16744319
-0.344513 1.63211 -2.80584 16744319
-0.368163 1.62847 -2.79649 16744319
-0.399276 1.65637 -2.84101 16744319
-0.416578 1.62717 -2.7874 16744319
-0.444288 1.63972 -2.80514 16744319
-0.472352 1.65232 -2.82268 16744319
-0.511677 1.70123 -2.90188 16744319
-0.544687 1.72565 -2.93888 16744319
-0.575036 1.73994 -2.95832 16744319
-0.621357 1.79938 -3.05408 16744319
-0.65908 1.8302 -3.10075 16744319
-0.685908 1.82965 -3.09395 16744319
-0.734954 1.8863 -3.18345 16744319
-0.798732 1.9754 -3.32697 16744319
-0.897901 2.14285 -3.6013 16744319
-1.53011 3.52827 -5.91653 16744319
-2.04675 4.5657 -7.63861 16744319
-3.43612 7.42348 -12.3903 16744319
-0.950803 2.69376 -4.4732 16744319
-0.735859 2.17414 -3.61688 16744319
-0.659879 2.0371 -3.3948 16744319
-0.608256 1.96608 -3.28187 16744319
-0.553547 1.87772 -3.13933 16744319
-0.528645 1.8867 -3.15907 16744319
-0.499787 1.88191 -3.15554 16744319
-0.465479 1.855 -3.1146 16744319
-0.423666 1.79315 -3.01456 16744319
-0.393389 1.7753 -2.9881 16744319
-0.367756 1.77751 -2.99515 16744319
-0.341474 1.77683 -2.99709 16744319
-0.310607 1.75034 -2.95524 16744319
-0.285102 1.75216 -2.96091 16744319
-0.25556 1.7272 -2.92107 16744319
-0.232878 1.74836 -2.95901 16744319
-0.204522 1.72704 -2.92482 16744319
-0.179459 1.73156 -2.93414 16744319
-0.153404 1.72656 -2.92712 16744319
-0.127593 1.72303 -2.92237 16744319
-0.101973 1.72111 -2.92011 16744319
-0.077822 1.75117 -2.9719 16744319
-0.0518897 1.75134 -2.97275 16744319
-0.0258533 1.74508 -2.96246 16744319
-4.83619e-07 1.74853 -2.96843 16744319
0.0259011 1.74836 -2.96804 16744319
0.0510834 1.72415 -2.92661 16744319
0.0777549 1.74968 -2.96938 16744319
0.103831 1.75249 -2.97335 16744319
0.129712 1.75167 -2.97093 16744319
0.157417 1.77174 -3.00372 16744319
0.183957 1.77496 -3.00769 16744319
0.213319 1.80133 -3.05062 16744319
0.242475 1.82042 -3.08095 16744319
0.265162 1.79211 -3.03084 16744319
0.293016 1.80081 -3.04311 16744319
0.324186 1.82687 -3.08445 16744319
0.377923 1.96649 -3.31701 16744319
0.465978 2.25227 -3.79512 16744319
0.711725 3.21191 -5.40612 16744319
1.66665 7.05405 -11.8589 16744319
6.63744 7.08367 -10.0281 16744319
6.72984 7.08909 -9.97746 16744319
6.11767 6.36218 -8.90133 16744319
6.5524 6.7291 -9.35787 16744319
7.03711 7.13819 -9.86574 16744319
6.94914 6.96402 -9.56474 16744319
7.19991 7.12996 -9.73019 16744319
7.75866 7.59401 -10.2962 16744319
7.34042 7.10266 -9.56628 16744319
7.60287 7.11628 -9.38883 16744319
8.13711 7.53541 -9.87116 16744319
8.68136 7.56922 -9.4741 16744319
7.86997 6.67343 -8.14965 16744319
8.94105 7.51404 -9.09854 16744319
5.62818 7.57903 -11.2885 16744319
0.712295 4.46541 -7.39752 16744319
0.437761 3.01797 -5.00367 16744319
0.32988 2.52631 -4.19156 16744319
0.275924 2.37673 -3.94593 16744319
0.223845 2.20317 -3.65987 16744319
0.179387 2.05952 -3.42294 16744319
0.144897 1.99598 -3.31872 16744319
0.117995 2.03151 -3.37897 16744319
0.0908672 2.08576 -3.47012 16744319
0.0618915 2.13085 -3.54581 16744319
0.0309782 2.13302 -3.54983 16744319
-5.78036e-07 2.13181 -3.54796 16744319
-0.0308849 2.12652 -3.53901 16744319
-0.0618157 2.1282 -3.5414 16744319
-0.0928327 2.13085 -3.54514 16744319
-0.12357 2.12748 -3.53859 16744319
-0.154654 2.13037 -3.54218 16744319
-0.186403 2.14005 -3.55679 16744319
-0.216867 2.13447 -3.54576 16744319
-0.246822 2.12604 -3.52972 16744319
-0.278495 2.13278 -3.53863 16744319
-0.309399 2.13302 -3.53646 16744319
-0.340055 2.13181 -3.53163 16744319
-0.363453 2.08923 -3.45804 16744319
-0.40173 2.1323 -3.52595 16744319
-0.425448 2.09761 -3.46501 16744319
-0.454454 2.09202 -3.45194 16744319
-0.477033 2.05952 -3.39428 16744319
-0.506912 2.06064 -3.39184 16744319
-0.527258 2.02518 -3.32899 16744319
-0.556527 2.02605 -3.32569 16744319
-0.576592 1.99513 -3.27003 16744319
-0.606263 1.99894 -3.27112 16744319
-0.626798 1.97379 -3.22461 16744319
-0.651635 1.96391 -3.2029 16744319
